# .PCD v0.7 - Point Cloud Data file format
VERSION 0.7
FIELDS x y z r g b reflectivity label
SIZE 4 4 4 1 1 1 4 4
TYPE F F F U U U F U
COUNT 1 1 1 1 1 1 1 1
WIDTH 146
HEIGHT 1
VIEWPOINT 0 0 0 1 0 0 0
POINTS 146
DATA ascii
-5.000000 -5.000000 0.000000 139 69 19 0.250000 0
-4.500000 -5.000000 0.000000 139 69 19 0.280000 0
-4.000000 -5.000000 0.000000 160 82 45 0.220000 0
-3.500000 -5.000000 0.000000 139 69 19 0.300000 0
-3.000000 -5.000000 0.000000 160 82 45 0.240000 0
-2.500000 -5.000000 0.000000 139 69 19 0.270000 0
-2.000000 -5.000000 0.000000 160 82 45 0.210000 0
-1.500000 -5.000000 0.000000 139 69 19 0.290000 0
-1.000000 -5.000000 0.000000 139 69 19 0.260000 0
-0.500000 -5.000000 0.000000 160 82 45 0.230000 0
0.000000 -5.000000 0.000000 139 69 19 0.280000 0
0.500000 -5.000000 0.000000 139 69 19 0.250000 0
1.000000 -5.000000 0.000000 160 82 45 0.220000 0
1.500000 -5.000000 0.000000 139 69 19 0.300000 0
2.000000 -5.000000 0.000000 160 82 45 0.240000 0
2.500000 -5.000000 0.000000 139 69 19 0.270000 0
3.000000 -5.000000 0.000000 160 82 45 0.210000 0
3.500000 -5.000000 0.000000 139 69 19 0.290000 0
4.000000 -5.000000 0.000000 139 69 19 0.260000 0
4.500000 -5.000000 0.000000 160 82 45 0.230000 0
5.000000 -5.000000 0.000000 139 69 19 0.280000 0
-5.000000 5.000000 0.000000 34 139 34 0.350000 0
-4.500000 5.000000 0.000000 46 139 87 0.380000 0
-4.000000 5.000000 0.000000 34 139 34 0.320000 2
-3.500000 5.000000 0.000000 60 179 113 0.400000 0
-3.000000 5.000000 0.000000 34 139 34 0.340000 0
-2.500000 5.000000 0.000000 46 139 87 0.370000 0
-2.000000 5.000000 0.000000 34 139 34 0.310000 0
-1.500000 5.000000 0.000000 60 179 113 0.390000 0
-1.000000 5.000000 0.000000 34 139 34 0.360000 8
-0.500000 5.000000 0.000000 46 139 87 0.330000 8
0.000000 5.000000 0.000000 34 139 34 0.380000 8
0.500000 5.000000 0.000000 60 179 113 0.350000 8
1.000000 5.000000 0.000000 34 139 34 0.320000 8
1.500000 5.000000 0.000000 46 139 87 0.400000 0
2.000000 5.000000 0.000000 34 139 34 0.340000 0
2.500000 5.000000 0.000000 60 179 113 0.370000 0
3.000000 5.000000 0.000000 34 139 34 0.310000 0
3.500000 5.000000 0.000000 46 139 87 0.390000 0
4.000000 5.000000 0.000000 34 139 34 0.360000 0
4.500000 5.000000 0.000000 60 179 113 0.330000 0
5.000000 5.000000 0.000000 34 139 34 0.380000 0
-3.000000 0.000000 0.000000 128 128 128 0.550000 2
-3.000000 0.000000 0.500000 128 128 128 0.580000 2
-3.000000 0.000000 1.000000 128 128 128 0.520000 2
-3.000000 0.000000 1.500000 128 128 128 0.600000 2
-3.000000 0.000000 2.000000 128 128 128 0.540000 2
-3.000000 0.000000 2.500000 128 128 128 0.570000 2
-3.000000 0.000000 3.000000 100 100 100 0.510000 0
-3.000000 0.500000 0.000000 128 128 128 0.590000 2
-3.000000 0.500000 0.500000 128 128 128 0.560000 2
-3.000000 0.500000 1.000000 128 128 128 0.530000 2
-3.000000 0.500000 1.500000 128 128 128 0.580000 2
-3.000000 0.500000 2.000000 128 128 128 0.550000 2
-3.000000 0.500000 2.500000 100 100 100 0.520000 0
-3.000000 0.500000 3.000000 100 100 100 0.600000 0
3.000000 0.000000 0.000000 128 128 128 0.550000 0
3.000000 0.000000 0.500000 128 128 128 0.580000 0
3.000000 0.000000 1.000000 128 128 128 0.520000 0
3.000000 0.000000 1.500000 128 128 128 0.600000 0
3.000000 0.000000 2.000000 128 128 128 0.540000 0
3.000000 0.000000 2.500000 128 128 128 0.570000 0
3.000000 0.000000 3.000000 100 100 100 0.510000 0
3.000000 0.500000 0.000000 128 128 128 0.590000 0
3.000000 0.500000 0.500000 128 128 128 0.560000 0
3.000000 0.500000 1.000000 128 128 128 0.530000 0
3.000000 0.500000 1.500000 128 128 128 0.580000 0
3.000000 0.500000 2.000000 128 128 128 0.550000 0
3.000000 0.500000 2.500000 100 100 100 0.520000 0
3.000000 0.500000 3.000000 100 100 100 0.600000 0
0.000000 -2.000000 0.000000 255 0 0 0.750000 4
0.500000 -2.000000 0.000000 255 0 0 0.780000 4
1.000000 -2.000000 0.000000 255 0 0 0.720000 4
0.000000 -2.000000 0.300000 255 0 0 0.800000 4
0.500000 -2.000000 0.300000 255 0 0 0.740000 0
1.000000 -2.000000 0.300000 255 0 0 0.770000 0
0.000000 -2.000000 0.600000 200 0 0 0.710000 0
0.500000 -2.000000 0.600000 200 0 0 0.790000 0
1.000000 -2.000000 0.600000 200 0 0 0.760000 0
0.000000 -2.000000 0.900000 200 0 0 0.730000 0
0.500000 -2.000000 0.900000 200 0 0 0.780000 0
1.000000 -2.000000 0.900000 200 0 0 0.750000 0
0.000000 -1.500000 0.000000 255 0 0 0.820000 4
0.500000 -1.500000 0.000000 255 0 0 0.790000 0
1.000000 -1.500000 0.000000 255 0 0 0.760000 0
0.000000 -1.500000 0.300000 255 0 0 0.730000 0
0.500000 -1.500000 0.300000 255 0 0 0.800000 0
1.000000 -1.500000 0.300000 255 0 0 0.770000 0
-2.000000 2.000000 0.000000 0 0 200 0.750000 0
-2.500000 2.000000 0.000000 0 0 200 0.780000 0
-3.000000 2.000000 0.000000 0 0 200 0.720000 0
-2.000000 2.000000 0.300000 0 0 200 0.800000 0
-2.500000 2.000000 0.300000 0 0 200 0.740000 0
-3.000000 2.000000 0.300000 0 0 200 0.770000 0
-2.000000 2.000000 0.600000 0 0 180 0.710000 0
-2.500000 2.000000 0.600000 0 0 180 0.790000 0
-3.000000 2.000000 0.600000 0 0 180 0.760000 2
-2.000000 2.000000 0.900000 0 0 180 0.730000 0
-2.500000 2.000000 0.900000 0 0 180 0.780000 0
-3.000000 2.000000 0.900000 0 0 180 0.750000 0
-2.000000 2.500000 0.000000 0 0 200 0.820000 0
-2.500000 2.500000 0.000000 0 0 200 0.790000 0
-3.000000 2.500000 0.000000 0 0 200 0.760000 0
-2.000000 2.500000 0.300000 0 0 200 0.730000 0
-2.500000 2.500000 0.300000 0 0 200 0.800000 0
-3.000000 2.500000 0.300000 0 0 200 0.770000 2
0.000000 0.000000 1.000000 0 100 0 0.450000 0
0.100000 0.100000 1.500000 0 120 0 0.480000 0
-0.100000 0.100000 1.800000 0 100 0 0.420000 8
0.100000 -0.100000 2.000000 0 140 0 0.500000 8
-0.100000 -0.100000 2.300000 0 100 0 0.440000 8
0.200000 0.000000 2.500000 0 120 0 0.470000 8
-0.200000 0.000000 2.800000 0 100 0 0.410000 8
0.000000 0.200000 3.000000 0 140 0 0.490000 8
0.000000 -0.200000 3.200000 0 100 0 0.460000 8
0.100000 0.100000 3.500000 0 120 0 0.430000 8
0.300000 0.300000 1.200000 34 139 34 0.520000 0
0.400000 0.400000 1.600000 46 139 87 0.550000 8
0.500000 0.300000 2.000000 60 179 113 0.480000 8
0.300000 0.500000 2.400000 34 139 34 0.560000 8
0.400000 0.500000 2.800000 46 139 87 0.500000 8
0.500000 0.600000 3.100000 60 179 113 0.530000 8
-0.300000 -0.300000 1.300000 34 139 34 0.490000 0
-0.400000 -0.400000 1.700000 46 139 87 0.540000 0
-0.500000 -0.300000 2.100000 60 179 113 0.510000 8
-0.300000 -0.500000 2.500000 34 139 34 0.570000 8
-0.400000 -0.500000 2.900000 46 139 87 0.470000 8
-0.500000 -0.600000 3.200000 60 179 113 0.540000 8
4.000000 3.000000 0.000000 255 255 0 0.850000 0
4.500000 3.000000 0.000000 255 255 0 0.880000 2
5.000000 3.000000 0.000000 255 255 0 0.820000 2
4.000000 3.500000 0.000000 255 200 0 0.900000 0
4.500000 3.500000 0.000000 255 200 0 0.840000 2
5.000000 3.500000 0.000000 255 200 0 0.870000 2
4.000000 3.000000 0.200000 200 200 200 0.810000 0
4.500000 3.000000 0.200000 200 200 200 0.890000 2
5.000000 3.000000 0.200000 200 200 200 0.860000 2
4.000000 3.000000 0.400000 180 180 180 0.830000 0
4.500000 3.000000 0.400000 180 180 180 0.880000 2
5.000000 3.000000 0.400000 180 180 180 0.850000 2
-4.000000 -3.000000 0.000000 50 50 50 0.150000 0
-4.000000 -3.000000 0.500000 50 50 50 0.180000 0
-4.000000 -3.000000 1.000000 50 50 50 0.120000 0
-4.000000 -3.000000 1.500000 50 50 50 0.200000 0
-4.000000 -3.000000 2.000000 70 70 70 0.140000 0
-4.000000 -3.000000 2.500000 70 70 70 0.170000 0
