# .PCD v0.7 - Point Cloud Data file format
VERSION 0.7
FIELDS x y z intensity label
SIZE 4 4 4 4 1
TYPE F F F F U
COUNT 1 1 1 1 1
WIDTH 186
HEIGHT 1
VIEWPOINT 0 0 0 1 0 0 0
POINTS 186
DATA ascii
-8.500000 -7.200000 0.080000 0.350000 0
-7.200000 -8.500000 0.120000 0.320000 0
-6.100000 -6.800000 0.050000 0.380000 0
-5.300000 -7.900000 0.110000 0.310000 0
-4.200000 -8.100000 0.070000 0.360000 0
-3.500000 -6.500000 0.140000 0.330000 0
-2.100000 -7.800000 0.030000 0.370000 0
-1.400000 -8.200000 0.090000 0.340000 0
0.200000 -6.900000 0.150000 0.390000 0
1.500000 -7.500000 0.060000 0.300000 0
2.800000 -8.000000 0.100000 0.350000 0
3.900000 -6.700000 0.040000 0.320000 0
4.600000 -7.300000 0.130000 0.380000 0
5.200000 -8.400000 0.080000 0.310000 0
6.300000 -6.600000 0.020000 0.360000 0
7.100000 -7.800000 0.110000 0.330000 0
8.000000 -8.100000 0.070000 0.370000 0
-8.000000 5.500000 0.090000 0.340000 0
-7.200000 4.800000 0.140000 0.390000 0
-6.500000 6.200000 0.010000 0.300000 0
-5.100000 5.000000 0.120000 0.350000 0
-4.300000 6.500000 0.050000 0.320000 0
-3.200000 4.500000 0.080000 0.380000 0
-2.500000 5.800000 0.150000 0.310000 0
-1.100000 6.000000 0.030000 0.360000 0
0.300000 4.700000 0.100000 0.330000 0
1.800000 5.500000 0.060000 0.370000 0
2.500000 6.300000 0.130000 0.340000 0
3.200000 4.900000 0.020000 0.390000 0
4.500000 5.700000 0.090000 0.300000 0
5.100000 6.100000 0.040000 0.350000 0
6.200000 4.600000 0.110000 0.320000 0
7.000000 5.900000 0.070000 0.380000 0
8.300000 6.400000 0.140000 0.310000 0
-7.500000 0.500000 0.080000 0.360000 0
-6.200000 -0.300000 0.010000 0.330000 0
-5.500000 1.000000 0.120000 0.370000 0
-4.100000 -0.500000 0.050000 0.340000 0
-3.300000 0.800000 0.150000 0.390000 0
-2.000000 -0.200000 0.090000 0.300000 0
-1.200000 1.200000 0.030000 0.350000 0
0.500000 -0.100000 0.100000 0.320000 0
1.200000 0.900000 0.060000 0.380000 0
2.500000 0.200000 0.130000 0.310000 0
3.300000 1.100000 0.020000 0.360000 0
4.100000 -0.400000 0.080000 0.330000 0
5.000000 0.700000 0.110000 0.370000 0
6.200000 0.000000 0.040000 0.340000 0
7.500000 0.500000 0.140000 0.390000 0
10.000000 15.000000 0.000000 0.720000 0
10.000000 15.500000 1.000000 0.750000 0
10.000000 16.000000 2.000000 0.780000 0
10.000000 16.500000 3.000000 0.710000 0
10.000000 17.000000 4.000000 0.760000 0
10.000000 17.500000 5.000000 0.730000 0
16.000000 15.000000 0.000000 0.720000 0
16.000000 15.500000 1.000000 0.750000 0
16.000000 16.000000 2.000000 0.780000 0
16.000000 16.500000 3.000000 0.710000 0
16.000000 17.000000 4.000000 0.760000 0
16.000000 17.500000 5.000000 0.730000 0
10.000000 21.000000 0.000000 0.720000 0
10.000000 21.000000 1.000000 0.750000 0
10.000000 21.000000 2.000000 0.780000 0
10.000000 21.000000 3.000000 0.710000 0
10.000000 21.000000 4.000000 0.760000 0
10.000000 21.000000 5.000000 0.730000 0
16.000000 21.000000 0.000000 0.720000 0
16.000000 21.000000 1.000000 0.750000 0
16.000000 21.000000 2.000000 0.780000 0
16.000000 21.000000 3.000000 0.710000 0
16.000000 21.000000 4.000000 0.760000 0
16.000000 21.000000 5.000000 0.730000 0
11.000000 15.000000 5.000000 0.820000 0
12.000000 15.500000 5.000000 0.850000 0
13.000000 16.000000 5.000000 0.810000 0
14.000000 16.500000 5.000000 0.840000 0
15.000000 17.000000 5.000000 0.830000 0
-25.000000 20.000000 1.000000 0.450000 0
-25.100000 20.100000 1.500000 0.420000 0
-24.900000 19.900000 2.000000 0.480000 0
-25.200001 20.200001 2.500000 0.440000 0
-24.799999 19.799999 3.000000 0.470000 0
-25.299999 20.299999 3.500000 0.410000 0
-24.700001 19.700001 4.000000 0.490000 0
-25.000000 20.000000 4.500000 0.430000 0
-25.100000 20.100000 5.000000 0.460000 0
-15.000000 25.000000 1.000000 0.450000 0
-15.100000 25.100000 1.500000 0.420000 0
-14.900000 24.900000 2.000000 0.480000 0
-15.200000 25.200001 2.500000 0.440000 0
-14.800000 24.799999 3.000000 0.470000 0
-15.300000 25.299999 3.500000 0.410000 0
-14.700000 24.700001 4.000000 0.490000 0
-15.000000 25.000000 4.500000 0.430000 0
0.000000 3.000000 0.200000 0.550000 0
0.500000 3.200000 0.400000 0.520000 0
1.000000 3.100000 0.600000 0.580000 0
1.500000 2.900000 0.800000 0.540000 0
2.000000 3.300000 1.000000 0.570000 0
2.500000 3.000000 1.200000 0.510000 0
3.000000 3.200000 1.400000 0.590000 0
3.500000 2.800000 0.300000 0.530000 0
-5.000000 -2.000000 0.200000 0.550000 0
-4.500000 -1.800000 0.400000 0.520000 0
-4.000000 -2.200000 0.600000 0.580000 0
-3.500000 -1.500000 0.800000 0.540000 0
-3.000000 -2.500000 1.000000 0.570000 0
-2.500000 -1.700000 1.200000 0.510000 0
-2.000000 -2.300000 1.400000 0.590000 0
8.000000 0.000000 0.300000 0.620000 0
8.100000 0.100000 0.600000 0.650000 0
8.200000 -0.100000 0.900000 0.610000 0
8.000000 0.200000 1.200000 0.640000 0
7.900000 -0.200000 1.500000 0.630000 0
8.100000 0.000000 1.800000 0.660000 0
-10.000000 8.000000 0.300000 0.620000 0
-9.900000 8.100000 0.600000 0.650000 0
-10.100000 7.900000 0.900000 0.610000 0
-10.000000 8.200000 1.200000 0.640000 0
-9.800000 7.800000 1.500000 0.630000 0
-10.200000 8.000000 1.800000 0.660000 0
-15.200000 -12.500000 0.080000 0.330000 0
-14.500000 -11.800000 0.120000 0.360000 0
-16.000000 -13.200000 0.050000 0.310000 0
-13.800000 -11.100000 0.150000 0.380000 0
-15.500000 -12.800000 0.030000 0.340000 0
-14.200000 -11.500000 0.110000 0.370000 0
12.300000 -14.100000 0.060000 0.330000 0
13.000000 -13.400000 0.130000 0.360000 0
11.600000 -14.800000 0.040000 0.310000 0
13.700000 -12.700000 0.090000 0.380000 0
12.600000 -13.800000 0.010000 0.340000 0
-8.500000 -18.299999 0.090000 0.330000 0
-7.800000 -17.600000 0.060000 0.360000 0
-9.200000 -19.000000 0.130000 0.310000 0
-7.100000 -16.900000 0.030000 0.380000 0
9.200000 -19.799999 0.040000 0.330000 0
9.900000 -19.100000 0.110000 0.360000 0
8.500000 -20.500000 0.020000 0.310000 0
10.600000 -18.400000 0.090000 0.380000 0
-20.500000 5.200000 0.110000 0.330000 0
-19.799999 6.000000 0.080000 0.360000 0
-21.200001 4.500000 0.150000 0.310000 0
-19.100000 6.700000 0.020000 0.380000 0
18.100000 10.500000 0.070000 0.330000 0
18.799999 11.200000 0.140000 0.360000 0