# .PCD v0.7 - Point Cloud Data file format
VERSION 0.7
FIELDS x y z intensity label
SIZE 4 4 4 4 4
TYPE F F F F U
COUNT 1 1 1 1 1
WIDTH 545
HEIGHT 1
VIEWPOINT 0 0 0 1 0 0 0
POINTS 545
DATA ascii
-10.500000 -8.200000 0.100000 0.350000 0
-9.800000 -7.500000 0.050000 0.320000 0
-8.300000 -9.100000 0.120000 0.380000 0
-7.600000 -6.800000 0.080000 0.310000 0
-6.200000 -8.400000 0.150000 0.360000 0
-5.500000 -7.200000 0.030000 0.330000 0
-4.100000 -9.500000 0.110000 0.370000 0
-3.400000 -6.100000 0.070000 0.340000 0
-2.000000 -8.800000 0.140000 0.390000 0
-1.300000 -7.900000 0.020000 0.300000 0
0.100000 -9.300000 0.090000 0.350000 0
1.800000 -6.500000 0.130000 0.320000 1
2.500000 -8.100000 0.060000 0.380000 0
3.900000 -7.400000 0.100000 0.310000 0
4.600000 -9.700000 0.040000 0.360000 0
5.000000 -6.300000 0.160000 0.330000 1
6.400000 -8.600000 0.010000 0.370000 0
7.100000 -7.000000 0.120000 0.340000 4
8.500000 -9.200000 0.080000 0.390000 4
9.200000 -6.700000 0.050000 0.300000 4
10.000000 -8.000000 0.110000 0.350000 4
-10.200000 5.300000 0.070000 0.320000 0
-9.500000 6.100000 0.140000 0.380000 0
-8.100000 4.800000 0.030000 0.310000 0
-7.400000 7.200000 0.100000 0.360000 0
-6.000000 5.900000 0.060000 0.330000 0
-5.300000 4.500000 0.130000 0.370000 0
-4.900000 6.800000 0.090000 0.340000 0
-3.200000 5.200000 0.020000 0.390000 1
-2.500000 7.500000 0.150000 0.300000 0
-1.100000 4.100000 0.080000 0.350000 1
0.600000 6.400000 0.040000 0.320000 1
1.300000 5.700000 0.110000 0.380000 1
2.700000 7.000000 0.070000 0.310000 1
3.400000 4.400000 0.140000 0.360000 1
4.800000 6.200000 0.010000 0.330000 1
5.500000 5.000000 0.100000 0.370000 1
6.900000 7.300000 0.060000 0.340000 1
7.600000 4.700000 0.130000 0.390000 0
8.000000 6.500000 0.090000 0.300000 0
9.400000 5.400000 0.020000 0.350000 0
10.100000 7.100000 0.150000 0.320000 0
-9.000000 0.500000 0.080000 0.380000 0
-8.300000 1.200000 0.040000 0.310000 0
-7.900000 -0.800000 0.110000 0.360000 0
-6.200000 0.900000 0.070000 0.330000 0
-5.500000 -0.200000 0.140000 0.370000 0
-4.100000 1.500000 0.010000 0.340000 0
-3.400000 -0.500000 0.100000 0.390000 0
-2.000000 0.200000 0.060000 0.300000 1
-1.300000 1.800000 0.130000 0.350000 1
0.100000 -0.100000 0.090000 0.320000 1
1.800000 1.100000 0.020000 0.380000 1
2.500000 -0.400000 0.150000 0.310000 1
3.900000 0.800000 0.080000 0.360000 1
4.600000 1.400000 0.040000 0.330000 1
5.000000 -0.700000 0.110000 0.370000 1
6.400000 0.300000 0.070000 0.340000 1
7.100000 1.600000 0.140000 0.390000 0
8.500000 -0.300000 0.010000 0.300000 4
9.200000 1.000000 0.100000 0.350000 0
15.000000 20.000000 0.000000 0.720000 0
15.000000 20.500000 1.000000 0.750000 0
15.000000 21.000000 2.000000 0.780000 0
15.000000 21.500000 3.000000 0.710000 0
15.000000 22.000000 4.000000 0.760000 0
15.000000 22.500000 5.000000 0.730000 0
15.000000 23.000000 6.000000 0.790000 0
15.000000 23.500000 7.000000 0.740000 0
15.000000 24.000000 8.000000 0.770000 0
20.000000 20.000000 0.000000 0.720000 0
20.000000 20.500000 1.000000 0.750000 0
20.000000 21.000000 2.000000 0.780000 0
20.000000 21.500000 3.000000 0.710000 0
20.000000 22.000000 4.000000 0.760000 0
20.000000 22.500000 5.000000 0.730000 0
20.000000 23.000000 6.000000 0.790000 0
20.000000 23.500000 7.000000 0.740000 0
20.000000 24.000000 8.000000 0.770000 0
15.000000 35.000000 0.000000 0.720000 6
15.000000 35.000000 1.000000 0.750000 6
15.000000 35.000000 2.000000 0.780000 6
15.000000 35.000000 3.000000 0.710000 6
15.000000 35.000000 4.000000 0.760000 6
15.000000 35.000000 5.000000 0.730000 6
15.000000 35.000000 6.000000 0.790000 6
15.000000 35.000000 7.000000 0.740000 6
15.000000 35.000000 8.000000 0.770000 6
20.000000 35.000000 0.000000 0.720000 0
20.000000 35.000000 1.000000 0.750000 0
20.000000 35.000000 2.000000 0.780000 0
20.000000 35.000000 3.000000 0.710000 0
20.000000 35.000000 4.000000 0.760000 0
20.000000 35.000000 5.000000 0.730000 0
20.000000 35.000000 6.000000 0.790000 0
20.000000 35.000000 7.000000 0.740000 0
20.000000 35.000000 8.000000 0.770000 0
15.500000 20.000000 8.000000 0.820000 0
16.000000 20.500000 8.000000 0.850000 0
16.500000 21.000000 8.000000 0.810000 0
17.000000 21.500000 8.000000 0.840000 0
17.500000 22.000000 8.000000 0.830000 0
18.000000 22.500000 8.000000 0.860000 0
18.500000 23.000000 8.000000 0.820000 0
19.000000 23.500000 8.000000 0.850000 0
19.500000 24.000000 8.000000 0.810000 0
-35.000000 30.000000 1.000000 0.450000 0
-35.200001 30.100000 1.500000 0.420000 0
-34.799999 29.900000 2.000000 0.480000 0
-35.099998 30.200001 2.500000 0.440000 0
-34.900002 29.799999 3.000000 0.470000 0
-35.299999 30.299999 3.500000 0.410000 0
-34.700001 29.700001 4.000000 0.490000 0
-35.000000 30.000000 4.500000 0.430000 0
-35.200001 30.100000 5.000000 0.460000 0
-34.799999 29.900000 5.500000 0.400000 0
-30.000000 35.000000 1.000000 0.450000 7
-30.200001 35.099998 1.500000 0.420000 7
-29.799999 34.900002 2.000000 0.480000 7
-30.100000 35.200001 2.500000 0.440000 7
-29.900000 34.799999 3.000000 0.470000 7
-30.299999 35.299999 3.500000 0.410000 7
-29.700001 34.700001 4.000000 0.490000 7
-30.000000 35.000000 4.500000 0.430000 7
0.000000 5.000000 0.200000 0.550000 1
0.500000 5.200000 0.400000 0.520000 1
1.000000 5.100000 0.600000 0.580000 1
1.500000 4.900000 0.800000 0.540000 1
2.000000 5.300000 1.000000 0.570000 1
2.500000 5.000000 1.200000 0.510000 1
3.000000 5.200000 1.400000 0.590000 1
3.500000 4.800000 0.300000 0.530000 1
0.200000 5.500000 0.500000 0.560000 1
0.700000 5.300000 0.700000 0.500000 1
-8.000000 -3.000000 0.200000 0.550000 0
-7.500000 -2.800000 0.400000 0.520000 0
-7.000000 -3.200000 0.600000 0.580000 0
-6.500000 -2.500000 0.800000 0.540000 0
-6.000000 -3.500000 1.000000 0.570000 0
-5.500000 -2.700000 1.200000 0.510000 0
-5.000000 -3.300000 1.400000 0.590000 0
-4.500000 -2.600000 1.600000 0.530000 0
-8.200000 -3.100000 1.800000 0.560000 0
-7.800000 -2.900000 2.000000 0.500000 0
10.000000 0.000000 0.300000 0.620000 4
10.100000 0.100000 0.600000 0.650000 0
10.200000 -0.100000 0.900000 0.610000 0
10.000000 0.200000 1.200000 0.640000 0
9.900000 -0.200000 1.500000 0.630000 0
10.100000 0.000000 1.800000 0.660000 0
12.000000 2.000000 0.300000 0.620000 0
12.100000 2.100000 0.600000 0.650000 0
12.200000 1.900000 0.900000 0.610000 0
12.000000 2.200000 1.200000 0.640000 0
11.900000 1.800000 1.500000 0.630000 0
12.100000 2.000000 1.800000 0.660000 0
-15.000000 10.000000 0.300000 0.620000 7
-14.900000 10.100000 0.600000 0.650000 7
-15.100000 9.900000 0.900000 0.610000 7
-15.000000 10.200000 1.200000 0.640000 7
-14.800000 9.800000 1.500000 0.630000 7
-15.200000 10.000000 1.800000 0.660000 7
-12.100000 -10.500000 0.080000 0.330000 7
-11.400000 -9.800000 0.120000 0.360000 7
-10.000000 -11.200000 0.050000 0.310000 0
-13.500000 -8.500000 0.150000 0.380000 7
-12.800000 -10.100000 0.030000 0.340000 7
-11.100000 -9.200000 0.110000 0.370000 7
-10.400000 -11.500000 0.070000 0.320000 0
-13.200000 -8.800000 0.140000 0.350000 7
-12.500000 -9.500000 0.020000 0.390000 7
-11.800000 -10.800000 0.100000 0.300000 7
12.300000 -12.100000 0.060000 0.330000 4
13.000000 -11.400000 0.130000 0.360000 4
11.600000 -13.500000 0.040000 0.310000 4
14.400000 -10.700000 0.090000 0.380000 4
12.900000 -12.800000 0.010000 0.340000 4
13.600000 -11.100000 0.160000 0.370000 4
11.200000 -14.200000 0.080000 0.320000 4
14.000000 -10.000000 0.120000 0.350000 4
12.600000 -13.200000 0.050000 0.390000 4
13.300000 -11.800000 0.110000 0.300000 4
-5.800000 -15.300000 0.090000 0.330000 3
-5.100000 -14.600000 0.060000 0.360000 3
-6.500000 -16.000000 0.130000 0.310000 3
-4.400000 -13.900000 0.030000 0.380000 3
-5.500000 -15.000000 0.100000 0.340000 3
-4.800000 -14.300000 0.070000 0.370000 3
-6.200000 -15.700000 0.140000 0.320000 3
-4.100000 -13.600000 0.010000 0.350000 3
-5.200000 -14.900000 0.080000 0.390000 3
-4.500000 -14.000000 0.150000 0.300000 3
7.200000 -16.799999 0.040000 0.330000 4
7.900000 -16.100000 0.110000 0.360000 4
6.500000 -17.500000 0.020000 0.310000 0
8.600000 -15.400000 0.090000 0.380000 4
7.500000 -16.500000 0.060000 0.340000 4
8.200000 -15.800000 0.130000 0.370000 4
6.800000 -17.200001 0.050000 0.320000 4
8.900000 -15.100000 0.100000 0.350000 4
7.800000 -16.200001 0.070000 0.390000 4
8.500000 -15.500000 0.140000 0.300000 4
-18.500000 3.200000 0.110000 0.330000 7
-17.799999 4.000000 0.080000 0.360000 7
-19.200001 2.500000 0.150000 0.310000 7
-17.100000 4.700000 0.020000 0.380000 7
-18.200001 3.500000 0.120000 0.340000 7
-17.500000 4.300000 0.050000 0.370000 7
-18.900000 2.800000 0.090000 0.320000 7
-16.799999 5.000000 0.160000 0.350000 7
-18.799999 3.800000 0.030000 0.390000 7
-17.200001 4.100000 0.130000 0.300000 7
16.100000 8.500000 0.070000 0.330000 0
16.799999 9.200000 0.140000 0.360000 0
15.400000 7.800000 0.040000 0.310000 0
17.500000 9.900000 0.100000 0.380000 0
16.400000 8.800000 0.010000 0.340000 0
17.100000 9.500000 0.080000 0.370000 0
15.700000 8.100000 0.150000 0.320000 0
17.799999 10.200000 0.060000 0.350000 0
16.700001 9.100000 0.110000 0.390000 0
17.400000 9.800000 0.020000 0.300000 0
-3.500000 18.200001 0.090000 0.330000 0
-2.800000 18.900000 0.060000 0.360000 0
-4.200000 17.500000 0.130000 0.310000 0
-2.100000 19.600000 0.030000 0.380000 0
-3.200000 18.500000 0.100000 0.340000 0
-2.500000 19.200001 0.070000 0.370000 0
-3.900000 17.799999 0.140000 0.320000 0
-1.800000 19.900000 0.010000 0.350000 0
-2.900000 18.799999 0.080000 0.390000 0
-2.200000 19.500000 0.150000 0.300000 0
5.500000 20.100000 0.040000 0.330000 0
6.200000 20.799999 0.110000 0.360000 0
4.800000 19.400000 0.020000 0.310000 0
6.900000 21.500000 0.090000 0.380000 0
5.800000 20.400000 0.060000 0.340000 0
6.500000 21.100000 0.130000 0.370000 0
5.100000 19.700001 0.050000 0.320000 0
7.200000 21.799999 0.100000 0.350000 0
6.100000 20.700001 0.070000 0.390000 0
6.800000 21.400000 0.140000 0.300000 0
-22.000000 -5.000000 0.120000 0.330000 7
-21.299999 -4.300000 0.050000 0.360000 7
-22.700001 -5.700000 0.090000 0.310000 7
-20.600000 -3.600000 0.160000 0.380000 7
-21.700001 -4.700000 0.030000 0.340000 7
-21.000000 -4.000000 0.100000 0.370000 7
-22.400000 -5.400000 0.070000 0.320000 7
-20.299999 -3.300000 0.140000 0.350000 7
-21.400000 -4.400000 0.010000 0.390000 7
-20.700001 -3.700000 0.080000 0.300000 7
22.500000 -7.200000 0.110000 0.330000 0
23.200001 -6.500000 0.040000 0.360000 0
21.799999 -7.900000 0.150000 0.310000 0
23.900000 -5.800000 0.080000 0.380000 0
22.799999 -6.900000 0.020000 0.340000 0
23.500000 -6.200000 0.120000 0.370000 0
22.100000 -7.600000 0.060000 0.320000 0
24.200001 -5.500000 0.090000 0.350000 0
23.100000 -6.600000 0.130000 0.390000 0
23.799999 -5.900000 0.050000 0.300000 0
-8.000000 -22.500000 0.100000 0.330000 0
-7.300000 -21.799999 0.070000 0.360000 0
-8.700000 -23.200001 0.140000 0.310000 0
-6.600000 -21.100000 0.010000 0.380000 0
-7.700000 -22.200001 0.110000 0.340000 0
-7.000000 -21.500000 0.040000 0.370000 0
-8.400000 -22.900000 0.080000 0.320000 0
-6.300000 -20.799999 0.150000 0.350000 0
-7.400000 -21.900000 0.020000 0.390000 0
-6.700000 -21.200001 0.090000 0.300000 0
10.500000 -25.000000 0.060000 0.330000 0
11.200000 -24.299999 0.130000 0.360000 0
9.800000 -25.700001 0.030000 0.310000 0
11.900000 -23.600000 0.100000 0.380000 0
10.800000 -24.700001 0.070000 0.340000 0
11.500000 -24.000000 0.140000 0.370000 0
10.100000 -25.400000 0.010000 0.320000 0
12.200000 -23.299999 0.080000 0.350000 4
11.100000 -24.400000 0.110000 0.390000 0
11.800000 -23.700001 0.050000 0.300000 0
-25.500000 12.300000 0.120000 0.330000 7
-24.799999 13.000000 0.090000 0.360000 7
-26.200001 11.600000 0.060000 0.310000 7
-24.100000 13.700000 0.130000 0.380000 7
-25.200001 12.600000 0.030000 0.340000 7
-24.500000 13.300000 0.100000 0.370000 7
-25.900000 11.900000 0.070000 0.320000 7
-23.799999 14.000000 0.140000 0.350000 7
-24.900000 12.900000 0.010000 0.390000 7
-24.200001 13.600000 0.080000 0.300000 7
28.000000 15.500000 0.050000 0.330000 0
28.700001 16.200001 0.120000 0.360000 0
27.299999 14.800000 0.020000 0.310000 0
29.400000 16.900000 0.090000 0.380000 0
28.299999 15.800000 0.060000 0.340000 0
29.000000 16.500000 0.130000 0.370000 0
27.600000 15.100000 0.040000 0.320000 0
29.700001 17.200001 0.100000 0.350000 0
28.600000 16.100000 0.070000 0.390000 0
29.299999 16.799999 0.110000 0.300000 0
-12.000000 28.000000 0.080000 0.330000 7
-11.300000 28.700001 0.150000 0.360000 7
-12.700000 27.299999 0.050000 0.310000 0
-10.600000 29.400000 0.110000 0.380000 7
-11.700000 28.299999 0.020000 0.340000 7
-11.000000 29.000000 0.090000 0.370000 7
-12.400000 27.600000 0.060000 0.320000 0
-10.300000 29.700001 0.130000 0.350000 7
-11.400000 28.600000 0.040000 0.390000 7
-10.700000 29.299999 0.100000 0.300000 7
3.000000 -28.500000 0.070000 0.330000 6
3.700000 -27.799999 0.140000 0.360000 6
2.300000 -29.200001 0.010000 0.310000 6
4.400000 -27.100000 0.080000 0.380000 6
3.300000 -28.200001 0.110000 0.340000 6
4.000000 -27.500000 0.050000 0.370000 6
2.600000 -28.900000 0.120000 0.320000 6
4.700000 -26.799999 0.090000 0.350000 6
3.600000 -27.900000 0.030000 0.390000 6
4.300000 -27.200001 0.060000 0.300000 6
-30.000000 -2.000000 0.100000 0.330000 7
-29.299999 -1.300000 0.070000 0.360000 7
-30.700001 -2.700000 0.140000 0.310000 7
-28.600000 -0.600000 0.040000 0.380000 7
-29.700001 -1.700000 0.010000 0.340000 7
-29.000000 -1.000000 0.080000 0.370000 7
-30.400000 -2.400000 0.110000 0.320000 7
-28.299999 -0.300000 0.150000 0.350000 7
-29.400000 -1.400000 0.020000 0.390000 7
-28.700001 -0.700000 0.090000 0.300000 7
32.500000 2.500000 0.060000 0.330000 0
33.200001 3.200000 0.130000 0.360000 0
31.799999 1.800000 0.030000 0.310000 0
33.900002 3.900000 0.100000 0.380000 0
32.799999 2.800000 0.070000 0.340000 0
33.500000 3.500000 0.140000 0.370000 0
32.099998 2.100000 0.010000 0.320000 0
34.200001 4.200000 0.080000 0.350000 0
33.099998 3.100000 0.110000 0.390000 0
33.799999 3.800000 0.050000 0.300000 0
0.000000 32.000000 0.040000 0.330000 0
0.700000 32.700001 0.110000 0.360000 0
-0.700000 31.299999 0.020000 0.310000 0
1.400000 33.400002 0.090000 0.380000 0
0.300000 32.299999 0.060000 0.340000 0
1.000000 33.000000 0.130000 0.370000 0
-0.400000 31.600000 0.050000 0.320000 0
1.700000 33.700001 0.100000 0.350000 0
0.600000 32.599998 0.070000 0.390000 0
1.300000 33.299999 0.140000 0.300000 0
-20.000000 -10.000000 4.000000 0.720000 7
-20.000000 -10.500000 5.000000 0.750000 7
-20.000000 -11.000000 6.000000 0.780000 7
-20.000000 -11.500000 7.000000 0.710000 7
-20.000000 -12.000000 8.000000 0.760000 7
-20.000000 -12.500000 9.000000 0.730000 7
-20.000000 -13.000000 10.000000 0.790000 7
-20.000000 -13.500000 11.000000 0.740000 7
-20.000000 -14.000000 12.000000 0.770000 7
-12.000000 -10.000000 4.000000 0.720000 7
-12.000000 -10.500000 5.000000 0.750000 7
-12.000000 -11.000000 6.000000 0.780000 7
-12.000000 -11.500000 7.000000 0.710000 7
-12.000000 -12.000000 8.000000 0.760000 7
-12.000000 -12.500000 9.000000 0.730000 7
-12.000000 -13.000000 10.000000 0.790000 7
-12.000000 -13.500000 11.000000 0.740000 7
-12.000000 -14.000000 12.000000 0.770000 7
-20.000000 -18.000000 4.000000 0.720000 7
-20.000000 -18.000000 5.000000 0.750000 7
-20.000000 -18.000000 6.000000 0.780000 7
-20.000000 -18.000000 7.000000 0.710000 7
-20.000000 -18.000000 8.000000 0.760000 7
-20.000000 -18.000000 9.000000 0.730000 7
-20.000000 -18.000000 10.000000 0.790000 7
-20.000000 -18.000000 11.000000 0.740000 7
-20.000000 -18.000000 12.000000 0.770000 7
-12.000000 -18.000000 4.000000 0.720000 7
-12.000000 -18.000000 5.000000 0.750000 7
-12.000000 -18.000000 6.000000 0.780000 7
-12.000000 -18.000000 7.000000 0.710000 7
-12.000000 -18.000000 8.000000 0.760000 7
-12.000000 -18.000000 9.000000 0.730000 7
-12.000000 -18.000000 10.000000 0.790000 7
-12.000000 -18.000000 11.000000 0.740000 7
-12.000000 -18.000000 12.000000 0.770000 7
-19.500000 -10.000000 12.000000 0.820000 7
-19.000000 -10.500000 12.000000 0.850000 7
-18.500000 -11.000000 12.000000 0.810000 7
-18.000000 -11.500000 12.000000 0.840000 7
-17.500000 -12.000000 12.000000 0.830000 7
-17.000000 -12.500000 12.000000 0.860000 7
-16.500000 -13.000000 12.000000 0.820000 7
-16.000000 -13.500000 12.000000 0.850000 7
-15.500000 -14.000000 12.000000 0.810000 7
40.000000 15.000000 0.800000 0.450000 0
40.099998 15.100000 1.200000 0.420000 0
39.900002 14.900000 1.600000 0.480000 0
40.200001 15.200000 2.000000 0.440000 0
39.799999 14.800000 2.400000 0.470000 0
40.299999 15.300000 2.800000 0.410000 0
39.700001 14.700000 3.200000 0.490000 0
40.000000 15.000000 3.600000 0.430000 0
40.099998 15.100000 4.000000 0.460000 0
39.900002 14.900000 4.400000 0.400000 0
40.200001 15.200000 4.800000 0.450000 0
39.799999 14.800000 5.200000 0.420000 0
40.299999 15.300000 5.600000 0.480000 0
39.700001 14.700000 6.000000 0.440000 0
40.000000 15.000000 6.400000 0.470000 0
5.000000 -40.000000 0.800000 0.450000 0
5.100000 -39.900002 1.200000 0.420000 0
4.900000 -40.099998 1.600000 0.480000 0
5.200000 -39.799999 2.000000 0.440000 0
4.800000 -40.200001 2.400000 0.470000 0
5.300000 -39.700001 2.800000 0.410000 0
4.700000 -40.299999 3.200000 0.490000 0
5.000000 -40.000000 3.600000 0.430000 0
5.100000 -39.900002 4.000000 0.460000 0
4.900000 -40.099998 4.400000 0.400000 0
-10.000000 25.000000 0.800000 0.450000 7
-9.900000 25.100000 1.200000 0.420000 7
-10.100000 24.900000 1.600000 0.480000 7
-9.800000 25.200001 2.000000 0.440000 7
-10.200000 24.799999 2.400000 0.470000 7
-9.700000 25.299999 2.800000 0.410000 7
-10.300000 24.700001 3.200000 0.490000 7
-10.000000 25.000000 3.600000 0.430000 7
30.000000 -25.000000 0.000000 0.720000 0
30.000000 -25.500000 1.000000 0.750000 0
30.000000 -26.000000 2.000000 0.780000 0
30.000000 -26.500000 3.000000 0.710000 0
30.000000 -27.000000 4.000000 0.760000 0
30.000000 -27.500000 5.000000 0.730000 0
30.000000 -28.000000 6.000000 0.790000 0
42.000000 -25.000000 0.000000 0.720000 0
42.000000 -25.500000 1.000000 0.750000 0
42.000000 -26.000000 2.000000 0.780000 0
42.000000 -26.500000 3.000000 0.710000 0
42.000000 -27.000000 4.000000 0.760000 0
42.000000 -27.500000 5.000000 0.730000 0
42.000000 -28.000000 6.000000 0.790000 0
30.000000 -35.000000 0.000000 0.720000 0
30.000000 -35.000000 1.000000 0.750000 0
30.000000 -35.000000 2.000000 0.780000 0
30.000000 -35.000000 3.000000 0.710000 0
30.000000 -35.000000 4.000000 0.760000 0
30.000000 -35.000000 5.000000 0.730000 0
30.000000 -35.000000 6.000000 0.790000 0
42.000000 -35.000000 0.000000 0.720000 0
42.000000 -35.000000 1.000000 0.750000 0
42.000000 -35.000000 2.000000 0.780000 0
42.000000 -35.000000 3.000000 0.710000 0
42.000000 -35.000000 4.000000 0.760000 0
42.000000 -35.000000 5.000000 0.730000 0
42.000000 -35.000000 6.000000 0.790000 0
31.000000 -25.000000 6.000000 0.820000 0
32.000000 -25.500000 6.000000 0.850000 0
33.000000 -26.000000 6.000000 0.810000 0
34.000000 -26.500000 6.000000 0.840000 0
35.000000 -27.000000 6.000000 0.830000 0
36.000000 -27.500000 6.000000 0.860000 0
37.000000 -28.000000 6.000000 0.820000 0
38.000000 -28.500000 6.000000 0.850000 0
39.000000 -29.000000 6.000000 0.810000 0
40.000000 -29.500000 6.000000 0.840000 0
41.000000 -30.000000 6.000000 0.830000 0
-1.000000 4.800000 0.300000 0.550000 1
-0.500000 5.100000 0.500000 0.520000 1
0.500000 4.700000 0.700000 0.580000 1
1.200000 5.400000 0.400000 0.540000 1
1.800000 4.600000 0.900000 0.570000 1
2.300000 5.200000 0.600000 0.510000 1
2.800000 4.900000 1.100000 0.590000 1
3.200000 5.300000 0.800000 0.530000 1
-0.300000 5.000000 0.200000 0.560000 1
0.800000 4.500000 0.600000 0.500000 1
-7.800000 -2.500000 0.300000 0.550000 0
-7.200000 -3.100000 0.500000 0.520000 0
-6.800000 -2.300000 0.700000 0.580000 0
-6.200000 -3.400000 0.400000 0.540000 0
-5.800000 -2.600000 0.900000 0.570000 0
-5.200000 -3.200000 0.600000 0.510000 0
-4.800000 -2.400000 1.100000 0.590000 0
-4.200000 -3.000000 0.800000 0.530000 0
-7.500000 -2.800000 0.200000 0.560000 0
-6.500000 -3.500000 0.600000 0.500000 0
11.000000 0.500000 0.400000 0.620000 0
10.500000 -0.300000 0.700000 0.650000 4
11.500000 0.800000 1.000000 0.610000 0
10.300000 0.100000 1.300000 0.640000 0
11.200000 -0.500000 0.500000 0.630000 4
10.800000 0.300000 0.800000 0.660000 0
12.500000 2.500000 0.400000 0.620000 0
12.000000 1.800000 0.700000 0.650000 0
11.500000 2.200000 1.000000 0.610000 0
12.300000 1.500000 1.300000 0.640000 0
-14.500000 10.500000 0.400000 0.620000 7
-15.300000 9.500000 0.700000 0.650000 7
-14.800000 10.800000 1.000000 0.610000 7
-15.500000 9.200000 1.300000 0.640000 7
-14.200000 10.200000 0.500000 0.630000 7
-15.800000 9.800000 0.800000 0.660000 7
-11.500000 -9.500000 0.100000 0.330000 7
-10.800000 -10.200000 0.070000 0.360000 7
-12.200000 -8.800000 0.140000 0.310000 7
-10.100000 -10.900000 0.040000 0.380000 0
-11.200000 -9.200000 0.110000 0.340000 7
-10.500000 -10.500000 0.080000 0.370000 0
-11.900000 -8.500000 0.150000 0.320000 7
-13.000000 -9.000000 0.050000 0.350000 7
13.500000 -11.500000 0.090000 0.330000 4
12.800000 -12.200000 0.060000 0.360000 4
14.200000 -10.800000 0.130000 0.310000 4
12.100000 -12.900000 0.030000 0.380000 4
13.200000 -11.200000 0.100000 0.340000 4
14.500000 -10.500000 0.070000 0.370000 4
11.800000 -13.200000 0.140000 0.320000 4
13.800000 -10.200000 0.010000 0.350000 4
-6.500000 -15.000000 0.080000 0.330000 3
-5.800000 -15.700000 0.050000 0.360000 3
-4.800000 -14.000000 0.120000 0.310000 3
-6.200000 -16.200001 0.090000 0.380000 3
8.000000 -16.000000 0.060000 0.330000 4
7.200000 -16.700001 0.130000 0.360000 4
8.800000 -15.200000 0.030000 0.310000 4
6.200000 -17.799999 0.100000 0.380000 0
-19.000000 3.000000 0.080000 0.330000 7
-18.200001 4.200000 0.050000 0.360000 7
-17.500000 3.800000 0.120000 0.310000 7
-19.500000 2.200000 0.090000 0.380000 7
17.000000 8.000000 0.060000 0.330000 0
16.200001 9.200000 0.130000 0.360000 0
17.799999 8.800000 0.030000 0.310000 0
15.500000 7.500000 0.100000 0.380000 0
-4.000000 17.000000 0.080000 0.330000 0
-3.200000 18.200001 0.050000 0.360000 0
-2.500000 17.799999 0.120000 0.310000 0
-4.500000 19.500000 0.090000 0.380000 0
6.000000 19.500000 0.060000 0.330000 0
5.200000 20.200001 0.130000 0.360000 0
6.800000 20.799999 0.030000 0.310000 0
4.500000 19.000000 0.100000 0.380000 0
